39.0621 -117.187 -6.5
47.8512 50.7814 35.5
-114.258 -120.117 -92.5
-44.9222 -86.9138 31.5
82.0308 -39.0623 29.5
-103.516 -62.4998 -16.5
101.562 32.2267 -102.5
-65.43 39.0627 23.5
-55.6644 -35.156 37.5
35.1559 -60.5466 41.5
49.8043 -2.92949 63.5
64.4527 30.2736 -74.5
-47.8519 3.90645 35.5
-67.3831 -95.7029 -32.5
88.8668 9.76582 -26.5
-123.047 -54.6873 -90.5
41.9918 -19.531 7.5
-62.5003 -65.4295 9.5
44.9215 27.3439 -28.5
-38.0863 -22.4607 -84.5
-65.43 12.6955 -94.5
80.0777 -112.304 -30.5
26.3668 -87.8904 21.5
48.8277 56.6408 -42.5
-83.0081 -41.992 1.5
69.3355 13.6721 29.5
103.515 -50.781 -50.5
69.3355 -67.3826 29.5
84.9605 55.6642 -104.5
-27.3441 -114.258 17.5
39.0621 16.6018 -112.5
33.2027 24.4143 43.5
45.898 0.976762 -0.5
-68.3597 -29.2967 -18.5
-50.7816 -17.5779 -10.5
67.3824 5.85957 -50.5
-89.8441 -7.8123 -20.5
-76.1722 -48.8279 -50.5
47.8512 11.7189 -74.5
44.9215 32.2267 -74.5
63.4762 -12.6951 -34.5
-68.3597 14.6486 -38.5
-52.7347 -5.85917 -92.5
19.5309 -110.351 9.5
125.976 10.7424 -100.5
63.4762 -10.742 15.5
86.9136 17.5783 -78.5
38.0855 -38.0857 15.5
-63.4769 -75.1951 -26.5
82.0308 -15.6248 -16.5
-65.43 -3.90605 -12.5
62.4996 33.2033 -2.5
-54.6878 29.2971 -106.5
30.2731 11.7189 -26.5
77.148 -46.8748 -20.5
-86.9144 20.508 -90.5
68.359 44.9221 -118.5
41.9918 -98.6326 5.5
62.4996 -7.8123 -84.5
-74.2191 13.6721 7.5
59.5699 -85.9373 9.5
63.4762 -28.3201 -8.5
79.1012 -7.8123 -58.5
-42.9691 13.6721 -96.5
56.6402 51.758 -78.5
97.6558 -26.367 -24.5
63.4762 -47.8513 37.5
-49.805 -97.656 -12.5
-108.399 -42.9685 -26.5
44.9215 -24.4139 49.5
-49.805 19.5314 7.5
34.1793 35.1564 7.5
41.9918 -7.8123 -92.5
-88.8675 -93.7498 -56.5
39.0621 37.1096 -120.5
-100.586 -42.9685 -70.5
-78.1253 -63.4763 33.5
74.2183 48.8283 -50.5
-119.141 -90.8201 -92.5
-86.9144 -73.242 -12.5
91.7965 -65.4295 -28.5
-44.9222 -17.5779 45.5
57.6168 27.3439 51.5
77.148 25.3908 -34.5
-100.586 -21.4842 3.5
53.7105 15.6252 -42.5
47.8512 -12.6951 -16.5
54.6871 22.4611 -54.5
53.7105 -10.742 -34.5
-63.4769 -51.7576 -16.5
59.5699 5.85957 -34.5
-62.5003 -20.5076 -52.5
45.898 -38.0857 -16.5
-52.7347 -27.3435 13.5
-59.5707 -17.5779 19.5
43.9449 17.5783 -30.5
55.6637 -19.531 -0.5
51.7574 -10.742 11.5
46.8746 -28.3201 7.5
-66.4066 -19.531 1.5
